   .2198954E-01   .6179100E-02   .1902488E-02   .9015454E-02
   .1107467E-01  -.4429576E-02   .2961287E-02   .5534719E-02
   .4802898E-02  -.1431500E-01   .9422572E-03   .5836405E-02
  -.2549170E-01  -.2350619E-01   .9872090E-03   .1649682E-02
  -.5937827E-01  -.1947674E-01  -.3491499E-02  -.2085609E-01
  -.6639020E-01  -.2630129E-01  -.3207313E-02  -.1596380E-01
  -.4251085E-01  -.2453605E-01   .2344203E-02  -.5694673E-02
  -.2704945E-01  -.2545304E-01   .3961771E-02   .1925111E-02
  -.1164913E-01  -.1875642E-01   .2147012E-02   .3359296E-02
   .2260647E-01  -.6742471E-02   .2713788E-02   .1252709E-01
   .1226755E-01  -.2358522E-02  -.4988885E-03   .4958423E-02
   .2021171E-01  -.3252058E-02   .4341721E-02   .9854199E-02
   .1925237E-01  -.6066950E-02  -.8760789E-03   .8649980E-02
   .6795352E-02   .2225930E-02  -.3917684E-02  -.4133581E-04
   .4267944E-02   .4164758E-02  -.2152686E-02  -.9558583E-02
  -.2049035E-01   .8183835E-02  -.5497245E-02  -.2464603E-01
  -.3047727E-01   .1245488E-01  -.4854329E-02  -.3066425E-01
  -.2147636E-01   .2720970E-02  -.4654337E-02  -.1149830E-01
  -.3932595E-02   .7878376E-02  -.4635290E-02  -.1768793E-02
   .1616789E-01   .1480449E-01   .1489063E-02   .2941009E-02
   .1474262E-01   .9094920E-02  -.1394085E-02   .6684752E-02
   .2859860E-01   .2350342E-01   .3399299E-02   .8476299E-02
   .2006079E-01   .2584559E-01   .3322908E-02   .2052628E-02
   .1318425E-01   .2809303E-01   .3684566E-02   .3667815E-02
   .3278187E-01   .4372466E-01   .3361812E-02   .7892048E-02
   .1529165E-01   .2610471E-01   .8046506E-03   .1351791E-01
   .1289228E-01   .2493702E-01   .6426134E-03   .8248886E-02
   .1162673E-01   .3335147E-01   .3636855E-02  -.4804846E-03
   .2463254E-01   .2541351E-01   .6025501E-03   .1046282E-01
   .2826734E-01   .2396160E-01  -.1282614E-05   .1783152E-01
   .3631796E-01   .3150174E-01  -.4632143E-02   .1641400E-01
   .2877051E-01   .3304490E-01  -.5162143E-02   .1560491E-01
   .4397430E-01   .3514857E-01  -.4633462E-02   .1858123E-01
   .3722086E-01   .2999003E-01  -.5109829E-03   .8366117E-02
   .4457008E-01   .3065842E-01   .4722662E-02   .3547079E-02
   .4984200E-01   .2422901E-01   .4864079E-02   .1055112E-01
   .6598279E-01   .2808169E-01   .6719789E-02   .1662237E-01
   .5658237E-01   .2720242E-01   .1522605E-02   .1637592E-01
   .5527018E-01   .3370803E-01   .3206135E-02   .1033802E-01
   .4341651E-01   .3152375E-01  -.5447812E-03  -.1508264E-02
   .2592999E-01   .1846490E-01  -.3264068E-02  -.1515286E-02
   .1357123E-01   .1271071E-01  -.2257088E-02  -.7140097E-02
   .1493318E-01   .1256114E-01  -.4506798E-02  -.3285306E-02
   .5805059E-02   .1101675E-01  -.1395114E-02  -.2120501E-02
   .1845530E-01   .2100703E-01  -.2396547E-02   .1078696E-01
   .2190586E-01   .2025671E-01   .5659626E-02   .1124912E-01
   .1980781E-01   .1521411E-01   .9636315E-02   .9608182E-02
   .7653132E-02   .1260065E-01   .7492791E-02   .7665617E-02
   .2644158E-01   .2217702E-01   .9716533E-02   .4592957E-02
   .1853099E-01   .1913777E-01   .6462047E-02  -.7017885E-03
   .2863738E-01   .2193044E-01   .7497396E-02  -.1130434E-02
   .2644523E-02   .7122900E-02   .5194096E-02  -.5535258E-02
  -.2392089E-01  -.1249831E-01  -.5263367E-03  -.4398164E-03
  -.4471807E-01  -.2525488E-01  -.2069299E-02  -.8327048E-02
  -.3981121E-01  -.3125270E-01  -.7734662E-02   .1972281E-02
  -.5383145E-01  -.3004041E-01  -.1075881E-01  -.9431775E-02
  -.7986985E-02  -.1596278E-01  -.1740219E-02  -.9927487E-02
  -.2524993E-01  -.2498162E-01   .5330942E-02  -.1780575E-01
  -.3184557E-01  -.2574630E-01   .1295405E-01  -.2299817E-01
  -.3225405E-01  -.1365600E-01   .1675157E-01  -.3490946E-01
  -.2398664E-01  -.1336313E-01   .1313117E-01  -.3499343E-01
   .3510022E-02  -.6429039E-03   .9665022E-02  -.1429559E-01
   .2033660E-01   .1053286E-01   .2363412E-02   .1354312E-02
   .3572643E-01   .1535558E-01  -.6203368E-03   .1863361E-01
   .6748532E-01   .3292525E-01   .2802137E-02   .3507589E-01
   .5105309E-01   .3222981E-01   .1602713E-03   .2796073E-01
   .4046872E-01   .2439572E-01   .2128206E-02   .3296471E-01
   .2183810E-01   .1618979E-01  -.1711095E-02   .1016731E-01
  -.5621103E-03   .5378820E-02   .5086210E-03  -.3564201E-02
  -.2229097E-01  -.9455749E-03   .2467511E-02  -.2248516E-01
  -.4434127E-01  -.6690632E-02   .3043440E-04  -.3474805E-01
  -.6468116E-01  -.1607096E-01  -.9665158E-03  -.4519393E-01
  -.8466665E-01  -.1243526E-01  -.5341880E-03  -.5726408E-01
  -.6685113E-01  -.2140310E-01   .2928498E-02  -.3430031E-01
  -.5483313E-01  -.3156938E-01   .4097660E-02  -.1752724E-01
  -.5035342E-01  -.3635364E-01   .4026561E-02  -.2791127E-02
  -.2939207E-01  -.3370956E-01   .4213967E-02   .8623989E-02
  -.2506286E-01  -.2982175E-01  -.6375455E-03   .1573151E-01
  -.2089850E-01  -.2889750E-01  -.3531945E-02   .2880825E-01
  -.2655011E-01  -.2675897E-01  -.8807708E-02   .2522219E-01
  -.1545510E-01  -.2239864E-01  -.3387416E-02   .2178417E-01
  -.1506719E-01  -.1496842E-01   .3066118E-02   .6750653E-02
   .1223667E-01   .8616878E-02   .5777590E-02  -.2623239E-02
  -.1289189E-01  -.5295035E-03   .8094719E-02  -.1184978E-01
  -.2633385E-02   .1267393E-01   .2757614E-02  -.1243694E-01
   .5397810E-02  -.8103469E-02  -.2278801E-02   .7630759E-02
   .5959535E-02  -.9831023E-02  -.3260085E-02   .1252771E-01
   .1211458E-01  -.1828928E-01  -.1772884E-02   .1903552E-01
   .2550732E-02  -.3038169E-01   .3387911E-02   .2422140E-01
  -.1421772E-01  -.4506691E-01   .3072876E-02   .2412736E-01
   .6071374E-02  -.3694797E-01   .4989313E-02   .3279380E-01
  -.1371702E-01  -.4420142E-01   .5633699E-02   .3486077E-01
  -.6071728E-02  -.3702175E-01   .1983336E-02   .3996758E-01
  -.2014510E-01  -.1821311E-01  -.4030403E-02   .6007870E-03
  -.2400741E-01  -.2570730E-01  -.5935967E-02   .7112983E-03
  -.1347906E-01  -.2209547E-01  -.5938764E-02   .6967929E-02
   .1051272E-01  -.1965230E-01   .9289409E-03   .1632875E-01
   .1950803E-01  -.7315933E-02   .1194946E-02   .2410604E-01
   .1618933E-01  -.1175775E-02   .4320275E-02   .2396742E-01
  -.3387358E-02   .1184804E-02   .3262459E-02   .2233352E-02
  -.2934141E-01   .2362621E-02  -.1029618E-02  -.1612554E-01
  -.3961475E-01   .1072142E-02  -.4756681E-02  -.3356808E-01
  -.6538704E-01  -.1089198E-01  -.1009921E-01  -.3835776E-01
  -.6700431E-01  -.7851502E-02  -.7435087E-02  -.5521357E-01
  -.5815022E-01  -.9519140E-02  -.1065667E-01  -.3881864E-01
  -.6450818E-01  -.2037792E-01  -.4666743E-02  -.5000472E-01
  -.4166636E-01  -.1132635E-01  -.5882997E-02  -.3593922E-01
  -.7318013E-02   .1908119E-02  -.5565374E-02  -.2007561E-01
   .2810520E-02  -.8561495E-02  -.4163533E-02   .4845233E-04
   .6716225E-02  -.9318608E-02  -.6656250E-02   .4902144E-02
  -.4585803E-02  -.1737992E-01  -.2034957E-02   .6860981E-02
  -.2532182E-01  -.2494258E-01  -.7110428E-03  -.6924009E-03
  -.2068629E-01  -.2384937E-01  -.1359622E-02   .2993530E-02
  -.3424051E-01  -.2383699E-01   .3630924E-02  -.1609526E-01
  -.3286901E-01  -.1655498E-01  -.1267853E-03  -.1762590E-01
  -.2911166E-01  -.1150579E-01   .1597529E-02  -.1853013E-01
  -.1384976E-01  -.1435668E-01  -.6697340E-03  -.1045233E-01
  -.8015852E-02  -.3254769E-02  -.3582381E-02  -.1059798E-01
  -.7441437E-02   .4122770E-02  -.1796965E-02  -.2083855E-01
   .2897035E-03   .2418691E-01  -.5570513E-03  -.3342278E-01
   .2060612E-01   .2715960E-01   .4374175E-03  -.3389477E-01
   .2510451E-01   .2450703E-01   .2914389E-02  -.3108377E-01
   .2833189E-01   .2914290E-01  -.3428522E-02  -.1853637E-01
   .1379587E-01   .5508269E-02  -.5731468E-02  -.6211747E-02
   .1653794E-01  -.2206322E-02  -.4595384E-02   .8164294E-02
   .1779710E-01   .5860739E-02  -.8188753E-02   .1103890E-01
   .2626671E-01   .9516433E-02  -.8230173E-03   .2086909E-01
   .3836374E-01   .1940712E-01  -.4259469E-03   .2666321E-01
   .5712303E-02   .3820169E-02   .4557962E-03  -.9074753E-03
  -.6230461E-03  -.3572161E-02   .2366900E-02  -.2144414E-02
  -.5796130E-02  -.1269510E-01   .1222856E-02  -.1067250E-02
  -.1523633E-01  -.1990548E-01   .9674969E-03  -.3598117E-02
  -.2616522E-01  -.1512651E-01  -.1587287E-02  -.1248015E-01
  -.2393431E-01  -.1859284E-01  -.1367331E-02  -.6625389E-02
  -.1329021E-01  -.1587462E-01   .1176686E-02  -.3287998E-02
  -.1435116E-01  -.1851018E-01   .1763042E-02  -.8395460E-03
  -.2983758E-02  -.1433587E-01  -.2255967E-02   .1095535E-02
   .1621292E-01  -.4721956E-02   .5933440E-03   .3872963E-02
   .2086112E-01  -.1854942E-02   .8543708E-03   .3988504E-03
   .1670675E-01  -.1325761E-02   .1536656E-02   .4189713E-02
   .5444035E-02  -.4933300E-02  -.4338150E-03   .1562069E-02
   .1528895E-01   .1196987E-02  -.5938539E-03  -.2944612E-02
   .8134352E-02   .6518224E-02  -.1545490E-02  -.5233755E-02
  -.2341588E-03   .7881224E-02  -.7930433E-03  -.1071329E-01
  -.8343105E-02   .9840740E-02  -.1964707E-02  -.1120204E-01
  -.3559215E-02   .4344936E-02   .5790961E-04  -.2136375E-02
  -.5759287E-02   .8873190E-02  -.1818108E-02   .6044760E-03
   .1021383E-01   .1273450E-01   .5673595E-03   .3200650E-02
   .8310363E-02   .8302078E-02   .6723887E-03   .5088906E-02
   .1734986E-01   .2048026E-01   .1340729E-02   .4691146E-02
   .1133742E-01   .2117642E-01   .2787310E-02   .2052470E-02
   .1486358E-01   .2127649E-01   .1712420E-02   .2361223E-02
   .2426894E-01   .3563515E-01   .1020688E-02   .3220959E-02
  -.3484024E-03   .2136293E-01   .3569433E-03   .5400604E-02
   .2645592E-02   .1951883E-01   .2454732E-03   .1569945E-02
   .2094878E-02   .2546930E-01   .3185935E-03  -.1882037E-02
   .8087336E-02   .2115552E-01   .5830789E-03   .3709178E-02
   .1462478E-01   .2124567E-01  -.1248905E-02   .5078815E-02
   .2635715E-01   .2624093E-01  -.1556631E-02   .4114215E-02
   .1423488E-01   .2675063E-01  -.2190685E-02   .3263629E-02
   .1949995E-01   .2776688E-01  -.2289031E-02   .3200994E-02
   .1567205E-01   .2189401E-01  -.9525274E-03  -.1288620E-02
   .2473386E-01   .2396381E-01   .1084464E-02  -.2159717E-02
   .3401758E-01   .2060994E-01   .1419453E-02   .2294409E-03
   .3955052E-01   .2281262E-01   .7804734E-03   .1783272E-02
   .3616929E-01   .1879616E-01   .2036292E-02   .1362687E-02
   .3949588E-01   .2369718E-01   .2042482E-02  -.7606490E-03
   .3272279E-01   .2321763E-01   .3541619E-03  -.5984792E-02
   .2230974E-01   .1644082E-01  -.1898346E-02  -.4514833E-02
   .1677769E-01   .1390705E-01  -.1078429E-02  -.6173895E-02
   .7917761E-02   .1306529E-01  -.1542147E-02  -.4756673E-02
   .2073384E-02   .8463466E-02  -.3151717E-02  -.3556861E-02
   .1877920E-01   .1384979E-01  -.1888406E-02   .2412763E-02
   .1991795E-01   .1407802E-01   .1052192E-02   .1243892E-02
   .2490066E-01   .1369851E-01   .2675928E-02   .8409731E-03
   .1355288E-01   .9455325E-02  -.1923258E-03   .2361139E-03
   .2201586E-01   .1346637E-01   .2190613E-02  -.7849723E-03
   .2065615E-01   .1058691E-01   .3096101E-02  -.2809725E-02
   .2060946E-01   .1263107E-01  -.5683619E-04  -.3097251E-02
   .9673782E-02   .2244050E-02   .1382019E-03  -.4941688E-02
  -.4718200E-02  -.1118081E-01   .5090749E-03  -.2038577E-02
  -.2160827E-01  -.2077373E-01  -.3139485E-02  -.5295696E-02
  -.2125151E-01  -.2387074E-01  -.5161038E-02   .6566586E-03
  -.2704813E-01  -.2176888E-01  -.5997587E-02  -.5192300E-02
  -.1076697E-01  -.9576255E-02  -.2592782E-02  -.3932559E-02
  -.2138951E-01  -.1653362E-01  -.1564669E-02  -.5879640E-02
  -.2908956E-01  -.1682977E-01   .1257264E-02  -.7887683E-02
  -.1625100E-01  -.6526840E-02   .4067252E-02  -.1158660E-01
  -.1639266E-01  -.7591118E-02   .4259493E-02  -.8892503E-02
  -.2083284E-02  -.3746576E-03   .2094598E-02  -.1402915E-04
   .8675537E-02   .9085421E-02   .8834226E-03   .5893460E-02
   .2306663E-01   .1249634E-01  -.1990644E-02   .1252954E-01
   .3598740E-01   .2478881E-01  -.1898584E-02   .1704013E-01
   .1671530E-01   .2165475E-01  -.3002479E-02   .1197038E-01
   .8199961E-02   .1526960E-01  -.3799431E-02   .1339317E-01
  -.1051542E-01   .1045866E-01  -.3524874E-02   .2209164E-02
  -.3206054E-01   .2907628E-02  -.1678190E-02  -.4168835E-02
  -.3630845E-01  -.2176924E-02   .2625485E-03  -.1078323E-01
  -.3552102E-01  -.8218569E-02  -.6293225E-03  -.1432586E-01
  -.6041590E-01  -.1822907E-01  -.2452247E-02  -.1719411E-01
  -.4941837E-01  -.1288826E-01  -.4164680E-03  -.1908433E-01
  -.3707647E-01  -.1740384E-01   .7283897E-03  -.6493201E-02
  -.3387639E-01  -.2105299E-01   .3750572E-03   .5002410E-03
  -.3633968E-01  -.2774913E-01   .7251678E-03   .6195981E-02
  -.2093814E-01  -.2569524E-01   .2618106E-02   .1091072E-01
  -.1630966E-01  -.2050940E-01  -.3365781E-03   .1257554E-01
  -.1151369E-01  -.1933368E-01  -.2028038E-02   .1586440E-01
  -.8384344E-02  -.1928133E-01  -.2557624E-02   .1278674E-01
   .2444102E-02  -.1507537E-01  -.1617229E-02   .8912581E-02
  -.8942132E-02  -.1391642E-01  -.1450368E-02   .1615024E-02
   .3017930E-02   .1165059E-02   .1327388E-02  -.1284808E-02
   .3684318E-02  -.2526343E-02   .2276552E-02  -.5530360E-02
   .4809293E-02   .9383022E-02   .2070497E-02  -.4743373E-02
  -.1647599E-02  -.1019592E-01  -.1732039E-02   .3295458E-02
  -.1547073E-02  -.1318296E-01   .1157828E-03   .3837261E-02
  -.7109960E-03  -.1624940E-01  -.3504883E-03   .7081151E-02
  -.1061705E-01  -.2417579E-01  -.5603725E-03   .8177648E-02
  -.2408877E-01  -.3468631E-01  -.1501029E-02   .6358838E-02
  -.1381612E-01  -.2549695E-01   .5607303E-04   .1006376E-01
  -.2299154E-01  -.3193039E-01   .2650856E-02   .8473820E-02
  -.2827050E-01  -.2972758E-01   .9065027E-03   .8477629E-02
  -.3332981E-01  -.1247347E-01  -.1048505E-02  -.9093426E-02
  -.3000834E-01  -.1639967E-01  -.2607695E-02  -.5472023E-02
  -.2710237E-01  -.1733069E-01  -.1802698E-02  -.3265406E-02
  -.2260920E-01  -.1746080E-01  -.2169970E-02  -.1134650E-02
  -.1854874E-01  -.5231067E-02   .8207551E-03   .2732134E-02
  -.1827046E-01  -.1184013E-02   .5486056E-03   .2225537E-02
  -.2584124E-01   .3734552E-03   .2073382E-02  -.8756781E-02
  -.2616000E-01   .1717835E-02   .7534090E-03  -.1091104E-01
  -.3152365E-01   .4979394E-03   .9287132E-03  -.1754467E-01
  -.3744373E-01  -.9285905E-02  -.1142210E-02  -.1910122E-01
  -.2804713E-01  -.6734022E-02  -.8364424E-03  -.2137120E-01
  -.2788792E-01  -.6760490E-02  -.2701704E-02  -.1223649E-01
  -.3095715E-01  -.1560204E-01  -.7687157E-03  -.1621972E-01
  -.1764101E-01  -.1140325E-01   .8405403E-03  -.7068293E-02
  -.1890449E-02  -.1803122E-02   .5085460E-03   .4964635E-03
  -.9365499E-02  -.9988939E-02   .4369229E-03   .9260747E-02
  -.2240385E-04  -.8090818E-02   .1850193E-02   .9365090E-02
  -.9621297E-02  -.1377378E-01   .1703737E-02   .9960733E-02
  -.1749669E-01  -.1779874E-01   .2293485E-02   .5899619E-02
  -.1160299E-01  -.1325104E-01   .1322703E-02   .5709495E-02
  -.1473185E-01  -.1563953E-01   .3044214E-02  -.2480119E-02
  -.3354140E-02  -.1238045E-01   .2144307E-02  -.1392564E-02
  -.4554445E-02  -.8152602E-02   .7442432E-03  -.2504388E-02
   .3362620E-02  -.1018164E-01   .2551522E-02   .1136595E-02
   .1786282E-01   .9321263E-03  -.7327615E-03   .1336740E-02
   .3216383E-01   .6461288E-02  -.1811973E-02  -.3429934E-02
   .3852822E-01   .1836346E-01   .6554367E-03  -.6956194E-02
   .4105371E-01   .1895671E-01   .1040261E-02  -.4997866E-02
   .4321349E-01   .1853394E-01   .4210128E-03  -.3408542E-02
   .4933156E-01   .2113969E-01   .1232276E-03   .1524690E-02
   .2040797E-01   .2915042E-02  -.8131414E-03   .6120200E-02
   .2010121E-01  -.9646285E-03  -.4392113E-03   .1139194E-01
   .2299359E-01   .5817766E-02  -.1879487E-02   .1158927E-01
   .2723837E-01   .5089305E-02   .4857902E-03   .1417669E-01
   .4303346E-01   .1335464E-01   .2302540E-02   .1471060E-01
   .6967885E-03   .4532965E-02   .4484652E-02   .7108724E-02
  -.1730791E-01  -.7171150E-02   .3817800E-02  -.3418353E-02
  -.1403361E-01  -.1583273E-01   .2042222E-02   .1883924E-03
  -.3602909E-01  -.3269093E-01  -.4747669E-02  -.7510793E-02
  -.8582307E-01  -.3334204E-01  -.5280542E-02  -.4336136E-01
  -.1229572      -.5095052E-01   .1934352E-02  -.3862032E-01
  -.1181387      -.4338184E-01   .5688208E-02  -.2569863E-01
  -.6939441E-01  -.3581905E-01   .1319665E-01  -.1328129E-01
  -.1466634E-01  -.2960179E-01   .1313793E-01   .2039983E-02
   .3787463E-01  -.8998441E-02   .1038524E-01   .1685736E-01
   .3855552E-01  -.5431985E-02   .1140537E-01   .8941518E-02
   .2336659E-01  -.8688756E-02   .2584855E-02   .2236226E-01
   .1381555E-01  -.2924746E-03  -.2545945E-02   .1382164E-01
  -.2187912E-01  -.4247742E-02  -.1240347E-01  -.2866893E-02
  -.4249337E-01  -.4652753E-02  -.1784431E-01  -.8660728E-02
  -.6243981E-01   .1437120E-01  -.2037453E-01  -.4635901E-01
  -.1020798       .1427807E-01  -.2785955E-01  -.7228328E-01
  -.9015082E-01  -.1874425E-02  -.2280449E-01  -.3115834E-01
  -.4985056E-01   .9346485E-02  -.1802702E-01  -.5499601E-02
  -.1153970E-01   .1794873E-01  -.4983520E-02   .1137685E-01
  -.1011033E-01   .1285556E-01  -.2677084E-02   .2121965E-01
   .2785907E-01   .3220873E-01   .8990606E-02   .2019426E-01
   .7843773E-02   .3909583E-01   .9408203E-02   .1243881E-01
   .1999381E-02   .4071588E-01   .1724852E-01   .1738566E-01
   .1968214E-01   .6255639E-01   .9798113E-02   .2053583E-01
   .1124450E-01   .3810631E-01   .1461671E-01   .2480140E-01
   .6982994E-02   .3976222E-01   .1027503E-01   .1118186E-01
   .8538345E-02   .5136031E-01   .1287600E-01  -.1059744E-01
   .1943697E-01   .3180406E-01   .2993094E-02   .1379108E-01
   .2587693E-01   .2994991E-01  -.5934863E-02   .3097250E-01
   .3139902E-01   .4382880E-01  -.1490278E-01   .2571009E-01
   .2038614E-01   .4714294E-01  -.1908144E-01   .2527187E-01
   .5542153E-01   .5877057E-01  -.6674494E-02   .2223689E-01
   .6376817E-01   .4916947E-01  -.7121570E-03   .9986231E-02
   .7273311E-01   .4262091E-01   .1782867E-01  -.5862565E-02
   .7357149E-01   .3161890E-01   .1814770E-01  -.8385167E-03
   .1045623       .4591405E-01   .2121442E-01   .1215750E-01
   .9620119E-01   .4900460E-01   .1531042E-01   .2135912E-01
   .8442752E-01   .5835689E-01   .4953047E-02   .5113671E-02
   .2852217E-01   .4466409E-01   .1526373E-02  -.1789731E-01
  -.4867225E-02   .1438541E-01  -.8988902E-02  -.1581891E-01
   .4644787E-02   .7159248E-02  -.8586977E-02  -.2357861E-01
   .3941679E-02   .1576839E-01  -.1300070E-01  -.2270749E-01
   .2263798E-01   .2423765E-01  -.3286351E-02  -.1587303E-01
   .5561254E-01   .4381837E-01   .1014275E-01   .4520267E-02
   .2647190E-01   .2880114E-01   .2381490E-01   .4195174E-02
   .2491687E-01   .1685738E-01   .3818992E-01   .5381694E-02
   .5006374E-01   .2826093E-01   .4442833E-01   .1483534E-01
   .7139611E-01   .4412523E-01   .4372633E-01   .6746891E-02
   .6304612E-01   .4134136E-01   .4303447E-01  -.4893161E-02
   .7532442E-01   .4236921E-01   .3847458E-01  -.1104754E-01
   .1209062E-01   .9793464E-02   .2485926E-01  -.2224751E-01
  -.3367453E-01  -.1483254E-01   .6234104E-02  -.1353672E-01
  -.9065203E-01  -.3665052E-01  -.1137011E-01  -.2327120E-01
  -.7291183E-01  -.5356851E-01  -.2172328E-01  -.9333523E-02
  -.6077785E-01  -.5322869E-01  -.1449717E-01  -.1473392E-01
  -.2291365E-01  -.3426277E-01   .3272620E-02  -.1732789E-01
  -.9606827E-02  -.4534039E-01   .3700811E-01  -.2040633E-01
  -.6261465E-02  -.4578241E-01   .5846274E-01  -.4232648E-01
   .5478892E-02  -.3149088E-01   .6417659E-01  -.5873769E-01
   .3944258E-01  -.1868063E-01   .6018247E-01  -.6005467E-01
   .6223922E-01   .2635384E-02   .4301753E-01  -.2709026E-01
   .7644953E-01   .1515678E-01   .3206164E-01   .7402909E-02
   .1205871       .2345473E-01   .2173235E-01   .4280044E-01
   .1646665       .5397470E-01   .2332864E-01   .7765041E-01
   .1260778       .6037081E-01   .1685191E-01   .6673173E-01
   .1128290       .4607050E-01   .1263768E-01   .8143053E-01
   .5717300E-01   .2554563E-01   .9524877E-02   .3322273E-01
   .1321452E-01   .9203686E-02   .7907028E-02  -.1512132E-02
  -.2244843E-01   .9473047E-03   .5106294E-02  -.3449363E-01
  -.5580184E-01   .7320605E-02   .6254353E-03  -.6954031E-01
  -.1280730      -.1359379E-01   .3013423E-02  -.9254930E-01
  -.1668937      -.1378020E-01   .7606969E-02  -.1108084    
  -.1432000      -.4444393E-01   .1352337E-01  -.6527951E-01
  -.1144819      -.5770426E-01   .1993163E-01  -.2633622E-01
  -.1004641      -.5269945E-01   .1569386E-01   .9788581E-02
  -.5978750E-01  -.5605731E-01   .8689513E-02   .4290259E-01
  -.5291067E-01  -.5470858E-01  -.3931319E-02   .5105598E-01
  -.4648182E-01  -.4753324E-01  -.1730140E-01   .7583320E-01
  -.3530583E-01  -.4532749E-01  -.1519767E-01   .6789226E-01
  -.1197091E-01  -.3287229E-01  -.5694400E-02   .5602836E-01
   .3434549E-02  -.7657276E-03   .1638945E-01   .2605706E-01
   .1540832E-01   .2064675E-01   .2228251E-01   .2920683E-02
  -.1647034E-01  -.6163084E-03   .1797276E-01  -.2167272E-01
  -.2901320E-01   .2117409E-01   .6427188E-02  -.3720644E-01
  -.3380719E-02   .6964666E-04  -.1296795E-02   .6015060E-02
   .9458246E-02  -.4242854E-02  -.1858577E-02   .1728980E-01
   .6227934E-02  -.2635593E-01   .2458694E-02   .3013016E-01
   .4074485E-02  -.4947707E-01   .1645077E-01   .4023723E-01
  -.3793821E-02  -.7618018E-01   .1949171E-01   .3868663E-01
   .3560872E-01  -.6609676E-01   .2700288E-01   .5963404E-01
   .8228007E-02  -.6516434E-01   .1119357E-01   .5826082E-01
  -.2535249E-02  -.5452559E-01   .5181751E-02   .5529899E-01
  -.7811424E-01  -.3923979E-01  -.1755258E-01  -.2729789E-02
  -.7579991E-01  -.4247869E-01  -.1321663E-01  -.2532689E-01
  -.3668766E-01  -.2402455E-01  -.1221669E-01  -.1633784E-01
   .5802751E-03  -.2678607E-01   .2496332E-02  -.6502246E-02
   .3726123E-01  -.9730040E-02   .6363798E-02   .2538173E-01
   .1987545E-01  -.2034553E-02   .7188179E-02   .1864482E-01
  -.7628460E-02  -.2078051E-02   .2831526E-02  -.1154852E-01
  -.5566904E-01   .6434642E-02  -.1638564E-01  -.4127882E-01
  -.1097836       .2629634E-02  -.2806953E-01  -.7340538E-01
  -.1486593      -.1591426E-01  -.4465916E-01  -.8940381E-01
  -.1201122      -.9971846E-02  -.4399832E-01  -.9732586E-01
  -.1099017      -.1786440E-01  -.4214894E-01  -.7950018E-01
  -.1357628      -.2535052E-01  -.4144764E-01  -.1114258    
  -.6549237E-01  -.8022150E-02  -.3932363E-01  -.6827849E-01
   .2530869E-02   .1198570E-01  -.3929489E-01  -.1981013E-01
   .1038999E-01  -.7916472E-02  -.3798279E-01   .1838964E-01
   .5358690E-01  -.1727450E-01  -.2948236E-01   .4701676E-01
   .4170766E-01  -.2761457E-01  -.2567774E-01   .4721695E-01
  -.2782661E-02  -.5207012E-01  -.1180829E-01   .2740681E-01
  -.7467286E-02  -.5014866E-01  -.7570277E-02   .2457999E-01
  -.1017545E-01  -.3708824E-01  -.5638823E-04  -.4018882E-02
  -.2807287E-01  -.2589915E-01  -.1235598E-02  -.1564503E-01
  -.5700627E-02  -.1312909E-01  -.2265566E-03  -.2393018E-01
  -.6375464E-02  -.2479790E-01  -.1068457E-01  -.8671581E-02
   .7895114E-02  -.1899773E-01  -.6944243E-02  -.1054568E-05
   .1704795E-01   .3489738E-02  -.5666145E-02  -.1975858E-01
   .4304392E-01   .4577333E-01  -.1141361E-02  -.3829688E-01
   .5252903E-01   .4219774E-01   .3474463E-03  -.3295241E-01
   .5524383E-01   .4025047E-01  -.8955796E-02  -.3900878E-01
   .8770312E-01   .4777908E-01  -.1497455E-01  -.1616159E-01
   .4975594E-01   .9705914E-02  -.2713917E-01   .1118163E-01
   .4833757E-01  -.5565929E-02  -.2899334E-01   .3831587E-01
   .5652546E-01   .9407692E-02  -.2180350E-01   .4042053E-01
   .7512819E-01   .1969956E-01  -.1996527E-01   .5834300E-01
   .1082099       .2962739E-01  -.1717218E-01   .7395845E-01
  -.3615521E-01  -.2566689E-02   .2582806E-02  -.2370929E-01
  -.5182999E-01  -.2105345E-01   .2111459E-02  -.2326911E-01
  -.7425519E-01  -.4214173E-01  -.8465932E-03  -.2216580E-01
  -.8875011E-01  -.5913963E-01  -.2588435E-02  -.2241525E-01
  -.7709706E-01  -.4763046E-01  -.2107258E-02  -.2584334E-01
  -.6042772E-01  -.4857424E-01   .2587667E-02  -.1454424E-01
  -.4467265E-01  -.3926041E-01   .5988098E-02  -.1298264E-01
  -.4705030E-01  -.4390363E-01   .2149811E-02  -.1168444E-01
  -.3962527E-01  -.3200462E-01  -.2409687E-02  -.1090656E-01
  -.7323033E-02  -.1089998E-01  -.3570592E-04  -.1555459E-02
  -.2851962E-02  -.3476455E-02   .3164285E-02  -.4904115E-02
  -.2160277E-03  -.7496420E-03   .2014430E-02   .9268444E-03
  -.2635001E-01  -.1220391E-01  -.2857072E-02  -.6741631E-02
  -.2115065E-01   .5833863E-02  -.4680175E-02  -.1195228E-01
   .1107747E-04   .2261459E-01  -.4555888E-02  -.2910166E-02
   .3277409E-02   .2489004E-01  -.3185200E-02  -.5747679E-02
   .1859031E-03   .3120884E-01  -.3725439E-02  -.1624652E-01
   .6992655E-02   .2437244E-01  -.2391545E-02  -.3178934E-02
   .2035055E-01   .3237841E-01  -.1567677E-02   .4886570E-02
   .3647581E-01   .4292859E-01  -.1857201E-03   .1296328E-01
   .3586612E-01   .3828592E-01   .2575091E-02   .1599348E-01
   .5601415E-01   .6263885E-01   .3055919E-02   .1371705E-01
   .5250709E-01   .6391797E-01   .4234610E-02   .5011483E-02
   .5545437E-01   .6869534E-01   .1900375E-02   .9088278E-02
   .8708811E-01   .9744372E-01   .1451712E-02   .1150524E-01
   .5616167E-01   .6572424E-01   .1393082E-02   .6602039E-02
   .4378258E-01   .6061308E-01   .3186908E-02  -.4154079E-02
   .4971181E-01   .7223854E-01   .1880601E-02  -.1513242E-01
   .4790788E-01   .6496906E-01  -.7834728E-03  -.6763844E-02
   .5296848E-01   .6643728E-01  -.5417278E-02  -.1556922E-02
   .5977904E-01   .7998958E-01  -.4887584E-02  -.8759119E-02
   .6045487E-01   .8250020E-01  -.3103710E-02  -.1283979E-01
   .5872040E-01   .8060366E-01   .5764861E-03  -.1465286E-01
   .4695461E-01   .6412089E-01   .4481524E-02  -.1932226E-01
   .5100743E-01   .6952680E-01   .3819550E-02  -.2377459E-01
   .4619697E-01   .6322380E-01   .2726754E-02  -.2601673E-01
   .4817078E-01   .6402690E-01   .3566384E-03  -.2705323E-01
   .4314131E-01   .5369955E-01   .2486999E-02  -.2078382E-01
   .4016210E-01   .5958829E-01   .1668686E-02  -.2638294E-01
   .2158927E-01   .5661119E-01  -.1097534E-02  -.3276363E-01
   .1378914E-01   .4700678E-01  -.3170287E-02  -.2451219E-01
   .1674667E-01   .4657924E-01  -.3009111E-02  -.2713363E-01
   .2596117E-01   .4633558E-01  -.1399828E-02  -.2206284E-01
   .1522791E-01   .3389061E-01  -.1604657E-02  -.1937697E-01
   .2754566E-01   .4001109E-01   .3965176E-02  -.1227696E-01
   .2380237E-01   .3927923E-01   .8091352E-02  -.1964693E-01
   .2316046E-01   .3933037E-01   .7115517E-02  -.2185559E-01
   .2455989E-01   .2474654E-01   .4488620E-02  -.1207091E-01
   .3634787E-01   .3005681E-01   .6033923E-02  -.9530257E-02
   .1740191E-01   .1738543E-01   .7389873E-02  -.1362024E-01
   .1326210E-01   .1360887E-01   .4127657E-02  -.1473188E-01
  -.2381984E-01  -.1145743E-01   .9829820E-03  -.1955349E-01
  -.5789173E-01  -.4312702E-01  -.2971590E-02  -.1381366E-01
  -.9110416E-01  -.6694365E-01  -.7934898E-02  -.1596120E-01
  -.8660453E-01  -.6964512E-01  -.8224694E-02  -.9521729E-02
  -.6343975E-01  -.5775226E-01  -.2367350E-02  -.1207989E-01
  -.1554485E-01  -.2715311E-01   .7060753E-02   .7387998E-05
  -.1578896E-01  -.3604345E-01   .1040483E-01   .4019938E-02
  -.1005892E-01  -.3118314E-01   .1017344E-01   .3671744E-02
   .1356858E-01  -.3780468E-02   .8605705E-02   .3919851E-02
   .1682347E-01  -.4350635E-02   .5844830E-02   .9340546E-02
   .4405328E-01   .1172716E-01   .2747646E-02   .2285439E-01
   .7294589E-01   .3278481E-01   .2788575E-02   .2559167E-01
   .8377956E-01   .4096034E-01   .3556075E-02   .2864357E-01
   .1067416       .6460267E-01   .2248513E-02   .3248017E-01
   .7321306E-01   .5241525E-01  -.4671601E-03   .1719653E-01
   .5962697E-01   .3225151E-01  -.3940586E-02   .2578461E-01
   .1931044E-01   .1685595E-01  -.2020177E-02   .1486988E-03
   .2279987E-02  -.7857974E-03   .9399159E-03  -.4756167E-02
  -.2307692E-01  -.1389682E-01   .1298749E-02  -.9029363E-02
  -.6044935E-01  -.3690336E-01  -.1768894E-02  -.1145360E-01
  -.9182261E-01  -.6252660E-01  -.2741825E-02  -.1084954E-01
  -.8597579E-01  -.5571502E-01   .2426573E-02  -.9668021E-02
  -.5751247E-01  -.5899449E-01   .4953796E-02   .1886926E-01
  -.5953714E-01  -.6445768E-01   .3737431E-02   .2709891E-01
  -.5954902E-01  -.7650621E-01   .1888316E-02   .3845952E-01
  -.3724352E-01  -.6687130E-01  -.1070130E-02   .4813844E-01
  -.2669760E-01  -.5054707E-01  -.4706159E-02   .4227284E-01
  -.1922068E-01  -.4540208E-01  -.5639913E-02   .4525005E-01
  -.2627150E-01  -.4157323E-01  -.1427075E-02   .2746072E-01
  -.1702279E-01  -.2888593E-01   .4022616E-02   .1969632E-01
  -.3197213E-01  -.3883585E-01   .5131550E-02   .8776252E-02
  -.2527852E-03  -.5985966E-02   .4193540E-02   .3705169E-02
  -.2216275E-01  -.1427827E-01  -.6489673E-04  -.2555610E-02
  -.1670254E-01   .6364403E-02  -.2856590E-02  -.1459367E-01
  -.5864545E-01  -.4332240E-01  -.3422902E-02  -.1252897E-02
  -.5543364E-01  -.5038207E-01   .2532600E-02  -.1210728E-02
  -.6422607E-01  -.6311731E-01   .5430340E-02  -.5296784E-03
  -.9119937E-01  -.8096976E-01   .2961536E-02  -.4783221E-02
  -.1115681      -.9549966E-01   .1096992E-02  -.1023877E-01
  -.8142386E-01  -.7081548E-01   .1613435E-02  -.7293772E-02
  -.9625944E-01  -.8416547E-01   .2426977E-02  -.1591125E-01
  -.9154599E-01  -.7581743E-01  -.2944772E-02  -.2268959E-01
  -.7392673E-01  -.3011838E-01  -.5093294E-02  -.4370949E-01
  -.7821117E-01  -.3875876E-01  -.4402115E-02  -.3762412E-01
  -.8693029E-01  -.4439845E-01   .1417604E-02  -.4496927E-01
  -.9125626E-01  -.4128011E-01   .2298773E-02  -.4645068E-01
  -.5154498E-01  -.1599348E-01   .3153033E-02  -.3533397E-01
  -.5636250E-01  -.8808995E-02  -.6105136E-03  -.4255968E-01
  -.4629044E-01  -.5704388E-03  -.2560108E-02  -.3960556E-01
  -.4156582E-01   .1543856E-02  -.4867162E-02  -.3943519E-01
  -.4894769E-01  -.4637211E-02  -.6040668E-02  -.4256418E-01
  -.5006768E-01  -.2529169E-01  -.5329476E-02  -.2912507E-01
  -.3135694E-01  -.1962210E-01  -.6495867E-02  -.1923336E-01
   .5276220E-02  -.2067558E-01  -.5793971E-02   .1027678E-01
  -.3795467E-01  -.4114900E-01  -.4773613E-02  -.1058603E-01
  -.1012370E-01  -.3457466E-01  -.4495118E-02   .1112433E-01
   .2781324E-01  -.1883072E-01  -.5297354E-02   .3634354E-01
   .1824114E-01  -.3811326E-01  -.4496669E-02   .4615471E-01
   .2823700E-01  -.3537572E-01  -.1058326E-02   .5473828E-01
   .1600683E-01  -.4708088E-01   .9076877E-03   .5648101E-01
  -.2911648E-02  -.4618679E-01   .1399562E-02   .3992135E-01
   .1491197E-01  -.3077191E-01   .1555787E-02   .3867154E-01
   .3757164E-02  -.3264901E-01   .1486507E-02   .2700004E-01
   .1914713E-01  -.2276211E-01   .1417009E-02   .2843213E-01
   .3107471E-01  -.1448539E-01  -.6378546E-03   .2248492E-01
   .3752686E-01  -.1819616E-01  -.7378056E-04   .2791489E-01
   .6745870E-01   .1342134E-01  -.2146991E-02   .2962172E-01
   .8105354E-01   .3042645E-01  -.3188913E-03   .2748764E-01
   .1058044       .5124133E-01   .2204683E-02   .2971063E-01
   .1171666       .5435609E-01   .1207890E-02   .4319271E-01
   .9959173E-01   .4958053E-01  -.3074756E-02   .3986794E-01
   .9497311E-01   .4871704E-01  -.6282655E-02   .4319136E-01
   .6145331E-01   .8898286E-02  -.5357924E-02   .4897652E-01
   .6316011E-01   .1297213E-02  -.2969152E-02   .5589427E-01
   .6318889E-01   .1275778E-01  -.9176342E-03   .4323600E-01
   .6041574E-01   .1220698E-01   .3783450E-03   .4049777E-01
   .7888060E-01   .3146497E-01  -.1630421E-02   .3621171E-01
   .6435879E-02   .5874811E-03   .4626846E-03   .6298418E-02
   .6390317E-02   .1199889E-02   .1189928E-03   .5004028E-02
   .7402655E-02   .2424964E-02   .6012861E-04   .5912108E-02
   .6957861E-02   .3072856E-02   .1782800E-03   .4763953E-02
   .2116753E-02   .2181062E-02  -.7112344E-03   .9317067E-03
  -.1098420E-03   .1200843E-02  -.1026476E-02   .1122000E-02
   .1050040E-02   .6596021E-03  -.1616231E-03   .3412069E-02
   .3643298E-02   .1531191E-02   .1544226E-02   .2938370E-02
   .2880465E-02   .1091186E-02   .6194848E-03   .2959472E-02
   .8511220E-03   .3974684E-03  -.9138674E-03   .1741567E-02
   .2143800E-02  -.5272352E-04  -.1028993E-03   .1338546E-02
   .3095979E-02  -.4940349E-03   .1798590E-02   .2212003E-02
   .1899132E-02   .8094036E-03   .2915545E-03   .2961584E-02
  -.3550300E-03  -.4620240E-03  -.5936563E-03   .6969097E-03
  -.3568775E-02  -.1907522E-02  -.7067223E-03  -.1905184E-02
  -.2793595E-02  -.1230066E-02   .3177826E-03  -.2473884E-02
  -.1027251E-02  -.1664667E-02   .1532134E-03   .1114160E-03
  -.2955571E-02  -.2062456E-02  -.1354661E-02   .7347224E-03
  -.3699498E-02  -.1913642E-02  -.9511552E-03  -.1421349E-02
  -.4343609E-02  -.2540122E-02   .6372032E-04  -.3144590E-02
  -.4135602E-02  -.2617474E-02  -.3674518E-03  -.2111148E-02
  -.3408435E-02  -.3157063E-02  -.7500049E-04  -.1050343E-02
  -.2704937E-02  -.2786370E-02  -.4189250E-03  -.4952891E-03
  -.3111277E-02  -.3400493E-02   .6067986E-03  -.1989908E-02
  -.4883745E-02  -.4401460E-02   .2071559E-03  -.2065721E-02
  -.1870109E-02  -.3091719E-02  -.3648365E-03   .1031220E-02
   .6388154E-03  -.2702171E-02  -.3707233E-04   .2439660E-02
   .1352056E-02  -.3182053E-02   .6223003E-03   .2645816E-02
   .4646636E-03  -.3349631E-02   .1018648E-02   .3423962E-02
  -.6472494E-03  -.3609829E-02   .6302789E-03   .3225239E-02
  -.8999303E-04  -.3927738E-02  -.7722369E-03   .4090959E-02
   .1329268E-02  -.4110425E-02  -.4875718E-03   .4718435E-02
   .1113692E-02  -.3266758E-02  -.7206600E-03   .5139743E-02
   .1328181E-02  -.2466629E-02  -.4138529E-03   .4912836E-02
   .2004568E-02  -.3302572E-02   .4611229E-03   .5791770E-02
   .3466619E-02  -.3439761E-02   .8908635E-03   .7747273E-02
   .3850734E-02  -.2651635E-02   .5808878E-03   .8014006E-02
   .1841353E-02  -.1744613E-02  -.2420643E-03   .6122084E-02
   .3562725E-02  -.1575893E-02   .6945080E-03   .6699208E-02
   .4847660E-02  -.1951443E-02   .3134971E-03   .6290835E-02
   .2990416E-02  -.2769388E-02  -.1565834E-03   .5071496E-02
   .5747678E-03  -.3382762E-02  -.6320728E-03   .5157634E-02
   .1552571E-02  -.2783614E-02  -.3439937E-04   .3715450E-02
   .3136238E-02  -.1491776E-02   .2074680E-03   .3570208E-02
   .1935441E-02  -.9195021E-03  -.1350769E-02   .4979445E-02
   .3833167E-02  -.1654412E-02   .6101489E-05   .6436757E-02
   .3177764E-02  -.2267652E-02   .1604338E-02   .5672613E-02
   .2320025E-02  -.7177667E-03   .1217852E-02   .3087297E-02
   .1597988E-02  -.7699384E-04  -.1225945E-03   .2200215E-02
   .2921983E-02   .8482216E-03   .5138702E-03   .2907467E-02
   .5551319E-02   .1402465E-02   .2157176E-02   .2917240E-02
   .8241033E-02   .1429229E-02   .9803395E-03   .2967220E-02
   .7703886E-02   .2352595E-02   .7621006E-03   .2898982E-02
   .6458916E-02   .3395572E-02   .9114871E-03   .2244973E-02
   .5053046E-02   .2925767E-02  -.3601178E-03   .3121160E-02
   .1076222E-02   .1870179E-02  -.1564297E-02   .1055409E-02
  -.4984836E-02   .4798524E-03  -.1175201E-02  -.2728519E-02
  -.3437244E-02   .4928455E-03   .6333527E-03  -.3325639E-02
  -.1420960E-02   .1223394E-03   .2008605E-02  -.4393209E-02
  -.4669062E-02  -.1309878E-02   .1414861E-02  -.5952942E-02
  -.5760652E-02  -.8604435E-03   .1699178E-02  -.6657009E-02
  -.4796752E-02  -.1054800E-02   .1602801E-02  -.5576966E-02
  -.5246376E-02  -.1778131E-02   .5574769E-04  -.4107088E-02
  -.3455419E-02  -.1941808E-02  -.1173906E-03  -.2592454E-02
  -.2060569E-02  -.2238913E-02   .8362098E-03  -.1574445E-02
   .1417112E-02  -.1179825E-02   .1482926E-02  -.5043497E-03
   .3012274E-02  -.6142994E-04   .1359848E-02  -.9649619E-03
   .2137220E-02   .1590040E-03  -.2513680E-03   .8963942E-03
   .2772987E-02   .5258071E-03   .5180317E-03  -.1097824E-02
   .3084000E-02   .9217437E-03   .1139289E-02  -.2365537E-02
   .4664111E-02   .3157704E-02   .9277687E-03  -.2859244E-02
   .3786262E-02   .4318617E-02  -.6677117E-03  -.3907310E-02
  -.7832830E-03   .3779882E-02  -.1153276E-02  -.6018486E-02
  -.2320363E-02   .2412506E-02   .8049614E-03  -.7500032E-02
  -.2369063E-03   .2188227E-02   .1228663E-02  -.6682604E-02
  -.3955698E-02   .3166150E-02   .1937349E-03  -.8301491E-02
  -.6344077E-02   .2629071E-02   .4758770E-03  -.8777725E-02
  -.4047105E-02   .1147200E-02   .9379344E-03  -.6505119E-02
  -.4140263E-02   .1187528E-02  -.3031401E-04  -.4980486E-02
  -.4045223E-02   .5256942E-03  -.1955039E-02  -.1992184E-02
  -.3980918E-02   .4237058E-03  -.9860334E-03  -.2030623E-02
  -.1212632E-02   .2789623E-02   .4170868E-03  -.2506369E-02
  -.5617919E-04   .1681298E-02   .1464068E-02  -.1411474E-02
   .1995864E-02   .9475338E-03   .1213391E-02  -.6646750E-03
   .3826243E-02   .7943140E-03   .4643752E-03   .1840312E-02
   .2772911E-02   .3393587E-02  -.4098974E-03   .2137768E-02
   .2909175E-02   .3578264E-02  -.1338968E-02   .1662432E-02
   .6924295E-02   .3851339E-02  -.3184553E-03   .3093095E-02
   .9571417E-02   .3983377E-02   .1033167E-02   .5319349E-02
   .8459889E-02   .3431121E-02   .2932397E-03   .5392815E-02
   .7524321E-02   .1996511E-02   .2243862E-03   .6386192E-02
   .1153720E-01   .3447145E-02   .1273708E-02   .8100970E-02
   .1498690E-01   .3193327E-02   .1689090E-02   .9825029E-02
   .5412719E-02   .3545881E-03  -.3202677E-03   .7388265E-02
   .5029534E-02   .7176922E-03  -.1887325E-02   .7764088E-02
   .1618483E-01   .2090515E-02  -.8702314E-03   .1287503E-01
   .1683941E-01   .1636366E-02   .7572395E-03   .1221766E-01
   .1500774E-01   .7855859E-03   .4888054E-03   .1061121E-01
   .1600957E-01   .7896699E-03   .5468419E-03   .1169035E-01
   .6517729E-02  -.6748599E-04   .3910541E-03   .6781815E-02
   .7370336E-02   .6842371E-04   .6388739E-03   .6287512E-02
   .5243727E-02   .7840883E-03  -.2369235E-03   .5054731E-02
  -.3511624E-02   .1198269E-02  -.1489498E-02  -.1219592E-02
  -.6569972E-02   .8316586E-03  -.9050670E-03  -.4813675E-02
  -.8491943E-02   .6123460E-03  -.1156966E-02  -.6931214E-02
  -.2594071E-02   .1848530E-02  -.5090314E-03  -.3556376E-02
  -.4395456E-02   .2240211E-02  -.7747130E-03  -.6369814E-02
  -.7681632E-02   .2080233E-02  -.3898214E-03  -.9665736E-02
  -.7390834E-02   .2608537E-02  -.1522952E-02  -.9152710E-02
  -.8531941E-02   .2075524E-02  -.1710346E-02  -.1099639E-01
  -.7229232E-02   .2253147E-02  -.7470603E-03  -.1156418E-01
  -.7089795E-02   .1077853E-02  -.8253536E-03  -.8426250E-02
  -.8537179E-02  -.4122756E-04  -.7135559E-03  -.8158948E-02
  -.9106452E-02   .7280894E-03  -.4521210E-03  -.8674719E-02
  -.1049757E-01   .3059506E-03  -.1885115E-03  -.8506843E-02
  -.9457298E-02   .2116079E-03   .3045533E-03  -.6896683E-02
  -.1090174E-01   .1834330E-03  -.5976513E-03  -.7166419E-02
  -.1252621E-01  -.2032182E-02  -.3471149E-03  -.7394145E-02
  -.1491719E-01  -.2389185E-02  -.7483304E-03  -.9807220E-02
  -.1491716E-01  -.1651416E-02  -.4717697E-03  -.1195685E-01
  -.1446920E-01  -.1857772E-02   .9115013E-03  -.1333114E-01
  -.1297595E-01  -.1682052E-02   .9056380E-03  -.1170126E-01
  -.1282697E-01  -.1435907E-02  -.3546854E-03  -.1122370E-01
  -.1241736E-01  -.4766587E-03  -.8092438E-03  -.1142020E-01
  -.1252519E-01  -.5308490E-03  -.9219725E-03  -.1031661E-01
  -.9355897E-02  -.2216139E-03  -.7821217E-03  -.6542028E-02
  -.7238617E-02   .2219474E-04  -.3813015E-03  -.4745757E-02
  -.6940513E-02  -.9342089E-03  -.1134951E-03  -.3846655E-02
   .4716878E-02   .3864348E-03   .1202031E-03   .2421580E-02
   .4588017E-03   .2272708E-02  -.3693449E-02   .2105922E-02
   .4060418E-02   .2808104E-02  -.1261187E-03   .1014453E-02
  -.1196517E-02   .7760733E-03  -.2589286E-02   .2680864E-02
   .3798629E-03   .2627756E-03   .2317351E-02   .7013039E-03
  -.3246980E-02  -.1779098E-02   .1089285E-02  -.1234248E-02
  -.1456211E-02   .1152105E-03  -.2675741E-02   .4335928E-03
   .3034142E-03   .2161321E-03   .1016247E-02   .9300244E-03
   .5883113E-02  -.1739215E-02   .6894398E-02   .4171172E-03
   .2583665E-02   .1116678E-02  -.1256550E-02   .1222820E-02
   .2193561E-02  -.1027243E-02   .1372314E-02   .1255014E-02
  -.4072616E-02  -.3954438E-03  -.4733896E-02   .5179716E-03
   .6224342E-02   .2227326E-02   .1716918E-02   .7933542E-03
  -.1483153E-02  -.4906357E-02  -.1014784E-02   .9903049E-03
   .9632050E-03  -.1297411E-02  -.4760013E-04  -.6031117E-03
  -.3293933E-02   .2746989E-03  -.2326937E-02  -.4323682E-03
  -.7057362E-02  -.1925772E-02  -.1583334E-02  -.1497638E-02
  -.9964337E-03  -.1766411E-02  -.2020406E-02  -.7542148E-03
   .4937933E-03  -.1943748E-02   .9670993E-03  -.2092985E-03
  -.2108311E-02  -.1825684E-02  -.1605395E-02  -.1106734E-02
   .2657886E-02  -.1044908E-02  -.2986815E-03  -.2543946E-03
  -.2012996E-02  -.4032184E-02  -.9090456E-03   .1666284E-03
  -.3273119E-02  -.7440817E-03  -.3023524E-02   .1664212E-03
   .2158719E-02  -.2506133E-02   .1218995E-02  -.6717630E-03
  -.3565300E-02  -.7516490E-03  -.1489040E-02  -.1012506E-02
  -.4345007E-02  -.2283275E-02   .2122893E-02  -.3075367E-04
  -.2307035E-03   .3889614E-05  -.3630889E-03   .1281089E-02
   .7613705E-04  -.1064111E-02   .1001501E-02   .9908624E-03
  -.3888800E-02  -.3186557E-02  -.8746101E-03   .4596089E-03
   .1003302E-02  -.3205075E-02   .1782187E-02   .1931018E-02
   .1525943E-02  -.1925258E-02   .2738912E-03   .9975501E-03
  -.1157465E-02  -.2220047E-02  -.4627209E-03   .1605786E-02
   .5891599E-02   .1131847E-02   .3639442E-02   .1773746E-02
  -.2133651E-02  -.1437972E-02  -.4209775E-03   .2332889E-02
   .7920416E-03  -.1189868E-02   .2693563E-02   .1584255E-02
  -.1080508E-02  -.2872252E-02   .1379380E-02   .1381008E-02
   .4274854E-02   .3413624E-03   .2145224E-02   .3173013E-02
   .2819211E-02  -.5180003E-04  -.1430031E-02   .2037357E-02
   .1378304E-02   .1586857E-02  -.4054298E-02   .2354239E-02
   .6312336E-02  -.1982489E-02   .5866267E-03   .2648746E-02
  -.5692662E-03  -.2716315E-02   .1432946E-03   .1381053E-02
  -.4942346E-02  -.3174679E-02   .7292107E-03   .1368279E-02
  -.1907741E-02  -.1053492E-02   .5142011E-03   .6905586E-03
   .3602736E-02   .3547288E-03   .4546908E-02   .6751558E-03
   .1174288E-01   .2534648E-02   .4855751E-02   .1087422E-02
   .1707622E-02  -.2554644E-02   .7002104E-03   .2209015E-02
   .3801362E-02  -.9757085E-03   .3097413E-02   .2527944E-02
   .7330152E-02   .1580958E-02   .7719814E-02   .1385098E-02
   .1870028E-02   .1370145E-02   .6999244E-03   .1150704E-02
   .6123785E-02   .3090514E-02   .2050541E-02   .4537543E-03
   .4481193E-02   .3108661E-02   .4177076E-02   .7516737E-03
   .3743887E-02   .2000374E-02   .9336695E-03   .4614740E-03
   .6069425E-02   .4503116E-02   .2972366E-03   .6509425E-03
   .6812990E-02   .4732616E-04   .3535368E-02   .1369394E-02
  -.2140713E-02  -.6725984E-03   .3513136E-02  -.6984514E-04
   .1508420E-02  -.1161347E-02   .7319318E-02   .1851942E-02
   .2087851E-02  -.1125608E-02   .3167857E-02  -.1055462E-02
   .7618689E-02  -.1001858E-02   .9269612E-02  -.1477929E-02
   .3001696E-02  -.2161660E-02   .6770742E-02  -.7841563E-03
  -.9669743E-03  -.3439852E-02   .4397279E-02  -.2955142E-02
  -.1533397E-02   .8635046E-03   .2709671E-02  -.2144910E-02
  -.6744460E-02  -.1963741E-02   .8448252E-03  -.4036887E-02
  -.1589107E-02  -.1830176E-02   .2229701E-02  -.6500207E-03
   .6759962E-03  -.2364248E-02   .3706300E-02  -.1607678E-02
   .6501937E-02   .1006328E-02   .4636398E-02   .1572843E-03
   .1441965E-01   .2994013E-02   .7195151E-02   .1728100E-02
   .8349453E-02   .1851652E-02   .7577496E-02  -.1648884E-03
   .8494754E-02   .2444020E-03   .7258032E-02   .1889943E-02
   .1577960E-02   .2224966E-02   .2121560E-02  -.4839522E-03
   .4434268E-02   .1267335E-02   .2566264E-03  -.6771113E-03
   .1385517E-01   .6717096E-02   .1889977E-02  -.1444638E-02
   .8267136E-02   .9130536E-03   .5066892E-02  -.2167037E-02
   .8622217E-02   .4849146E-02   .8662215E-03  -.1786715E-02
  -.5418299E-02  -.3159308E-02   .1835637E-03  -.4887834E-02
   .5325919E-02   .1930820E-02   .2861347E-02  -.1932185E-02
  -.2729943E-02   .7040382E-03   .3588628E-03  -.2690047E-02
  -.5395924E-02  -.4631559E-03  -.2367562E-02  -.2803025E-02
  -.3224589E-02  -.1995158E-02   .1147017E-02  -.1355295E-02
  -.3724153E-03   .1174394E-02  -.1538067E-02  -.1596321E-02
   .7523906E-03  -.2364838E-02   .2277061E-02   .4000442E-03
   .8617939E-03   .9634653E-03   .3807292E-03  -.4274548E-03
   .7069785E-02   .3577781E-02   .5397788E-02   .3307291E-03
  -.4737704E-03   .4846580E-03   .8841272E-03  -.5998195E-03
   .1563950E-02   .8811186E-03   .7255686E-03  -.2697801E-03
  -.1663334E-03   .1680757E-02  -.1433302E-02  -.5780957E-03
   .1003663E-01   .5198804E-02   .2007346E-02  -.3631843E-03
   .1302834E-02   .4045343E-02  -.2582007E-02   .1529318E-02
   .4229840E-02   .1864082E-02   .1817923E-03   .2708514E-03
   .9235135E-02   .1522416E-02   .3700279E-02   .2588063E-02
   .6725241E-02   .3399558E-03   .5892009E-02   .2404535E-02
   .1578086E-02  -.1291860E-02   .4331953E-02   .1587627E-02
  -.3553617E-02   .1471908E-02  -.4525193E-02   .3174065E-02
   .2898676E-04  -.5609711E-03   .9660866E-03   .2708139E-02
   .4261765E-02  -.1523557E-02  -.2562396E-02   .5416336E-02
   .5843061E-02   .2793993E-03   .3145785E-02   .2146806E-03
   .8228908E-02   .2604634E-02  -.5594886E-03   .3228215E-02
   .9736997E-02  -.1008029E-02   .3585181E-02   .4745785E-02
  -.2413609E-03   .4362636E-03  -.2664409E-03   .1528920E-02
   .4709874E-02  -.1255479E-02   .1643965E-02   .5392874E-02
   .6251049E-04   .2664877E-03  -.1914727E-02   .3683298E-02
  -.2681815E-02   .1585001E-02  -.4497285E-02   .2252294E-02
  -.6147600E-02  -.6331038E-04  -.5420087E-02   .1120757E-02
  -.4925586E-02   .1192723E-02  -.5435636E-02  -.5774017E-03
  -.7560034E-02   .1715951E-02  -.5479223E-02  -.2512228E-02
  -.8429054E-02  -.1043141E-02   .1554997E-03  -.3829802E-02
  -.6949614E-02   .2151911E-02  -.6256029E-02  -.2064497E-02
  -.6753382E-02   .1076403E-02  -.4626988E-02  -.1957841E-02
  -.5338820E-02   .3839450E-02  -.5170859E-02  -.3760717E-02
  -.6667925E-02   .1298622E-02  -.5735929E-02  -.2850622E-02
  -.5796224E-02   .7017928E-03  -.5926331E-02  -.2467636E-02
  -.6669851E-02   .1755266E-02  -.6621283E-02  -.3299973E-02
  -.9574230E-02  -.3805025E-02  -.3848283E-02  -.3064323E-02
  -.8130768E-02  -.1866830E-02  -.2946571E-02  -.1834693E-02
  -.9774314E-02   .2307169E-03  -.4326271E-02  -.2247552E-02
  -.7084151E-02  -.4366815E-03  -.2564645E-02  -.3217109E-02
  -.9074418E-02   .1808069E-02  -.1922503E-02  -.2826612E-02
  -.1614414E-01  -.3687403E-02  -.6301721E-02  -.2060807E-02
  -.3796044E-02  -.4465329E-02   .2219202E-02  -.2768705E-02
   .1034098E-02  -.1321789E-02   .2181514E-03  -.1868735E-02
  -.5191661E-02   .6493052E-03  -.1949633E-02  -.3866879E-02
  -.7554372E-02  -.1822490E-02  -.2693340E-03  -.4167129E-02
  -.5767401E-02   .1762824E-02  -.2608056E-02  -.4999380E-02
  -.4792914E-02   .1393323E-02  -.8539565E-03  -.4462499E-02
  -.7873221E-02   .1287043E-02  -.2870788E-02  -.3750541E-02
  -.1359719E-01  -.2590423E-02  -.4288801E-02  -.3514403E-02
  -.5120490E-03  -.4065701E-03   .4029986E-03  -.1352104E-02
  -.2739415E-02   .8624544E-03  -.5184083E-02  -.1211513E-02
  -.5730650E-02   .7329456E-03  -.3596393E-02  -.5342485E-03
