  -.5697118E-02   .4176553E-03  -.1206280E-03
   .7668779E-02   .2924898E-03   .4817804E-03
   .6780495E-02  -.6614993E-03   .2565491E-03
   .5619980E-02  -.6483009E-03   .8330990E-03
  -.7808855E-02   .3364620E-04  -.1731691E-03
   .2066293E-02  -.1718245E-03   .6653026E-03
  -.3106916E-02   .3530925E-03   .7956768E-04
   .2168250E-02  -.1070465E-02   .4617159E-03
  -.4812869E-02   .1014890E-04   .9556413E-05
  -.1209406E-01   .3957855E-03   .1202013E-02
  -.3450386E-02   .4557534E-03  -.7114085E-04
   .1671970E-03  -.1101848E-03   .1321480E-02
   .3028792E-02   .4768221E-03  -.5164765E-03
  -.4776892E-02  -.8575745E-03  -.2319793E-03
  -.3986154E-02  -.2476692E-04   .1111674E-02
  -.4042946E-03  -.5544594E-03  -.9576574E-03
   .4526498E-03   .1348003E-02  -.2472379E-02
   .6608175E-02   .9335268E-03   .1658230E-02
  -.1162778E-02  -.1127630E-02   .1311830E-02
  -.1662121E-02  -.5551294E-03   .6034456E-03
   .5149901E-02   .1810910E-02   .6514923E-04
  -.6468122E-02  -.5672811E-03  -.1172348E-03
   .2446315E-02   .4076322E-03  -.6068910E-03
   .1205740E-02  -.1589805E-02   .8377166E-03
  -.1046699E-01   .2825055E-03   .8851626E-04
   .1966302E-01  -.6254788E-03  -.8504981E-03
   .4110952E-02  -.1937891E-03  -.1227097E-02
  -.4061829E-02  -.5883904E-03  -.1621541E-02
   .8834288E-02  -.2600372E-03   .1078272E-02
   .5155769E-02   .1610033E-04   .1633590E-02
  -.1812307E-02   .5979136E-03  -.5166890E-03
   .3921323E-02  -.2670771E-03  -.1565968E-03
   .1585258E-02   .8297113E-03  -.2408158E-04
   .9262375E-02   .4241574E-03   .4209713E-04
  -.3562326E-03  -.4616179E-03  -.4072225E-03
   .7741707E-02   .5427378E-03  -.2694873E-03
   .1884456E-02  -.1051491E-03   .8032128E-03
   .5533293E-02   .8070607E-03   .1523665E-02
  -.4520537E-02  -.1908323E-03  -.6482942E-03
   .2876684E-02  -.3396469E-03  -.4130907E-03
   .9910866E-02  -.1112670E-02   .1561737E-02
   .6949777E-02  -.1602673E-03   .1276504E-03
   .4930741E-02   .1594100E-03   .7208795E-03
   .6740153E-02  -.1987018E-03   .2489100E-03
  -.7063903E-02   .1533754E-02   .8202697E-03
   .1171511E-02  -.1496777E-03  -.7152907E-03
   .2532558E-02   .9849687E-04   .3209496E-03
   .6502651E-02   .1436151E-03   .1957357E-02
  -.4264440E-02   .5862010E-03   .7919152E-03
   .1674462E-02  -.1362730E-04  -.2748900E-03
  -.4462131E-02  -.1230213E-02   .6678595E-04
   .8725325E-02   .3242620E-03  -.8468639E-03
   .1008618E-01  -.2769061E-03   .4911295E-03
   .9617946E-02  -.3075000E-03  -.1360769E-03
   .1499224E-02  -.5887722E-04   .5200096E-03
  -.5041479E-02   .1192376E-02   .6033294E-03
  -.1252586E-01   .1748016E-02   .1531632E-02
   .6894960E-02  -.3724027E-03   .2435761E-03
   .3671630E-03   .2493954E-03  -.2872414E-03
  -.8916946E-02   .2170590E-02  -.7909404E-03
   .8078958E-03  -.1946132E-03  -.8294726E-04
  -.6562835E-02   .2114240E-04   .3909757E-03
  -.7623114E-02   .4744919E-03   .3070323E-03
  -.1258836E-02  -.1010013E-02   .7857617E-04
  -.1122349E-01  -.1646471E-02   .6298495E-03
   .3015065E-02  -.1069751E-03  -.1264218E-02
   .6579358E-02   .4342149E-03   .1750538E-02
   .5824435E-02   .1940974E-02  -.2458316E-02
   .5890615E-02   .6889174E-03  -.4363794E-03
   .4753263E-02   .1763128E-02  -.6948879E-03
   .3337477E-02   .5525958E-03  -.1129787E-02
   .6592207E-02   .2524776E-03  -.1047258E-02
  -.1086848E-01   .3003785E-03  -.7141988E-03
   .1988496E-02  -.5641090E-04   .2144645E-02
   .3622418E-02   .6641240E-03   .6411866E-03
   .4231285E-02   .3250567E-03   .1226291E-02
  -.4449418E-02  -.6722856E-03   .7808652E-03
  -.6871999E-02  -.2095016E-03  -.1046280E-02
  -.3541913E-02   .1446850E-03   .5497558E-03
   .2582066E-03   .1006151E-02  -.1674258E-02
  -.6418456E-02  -.5021741E-03  -.7837214E-03
  -.1378486E-02  -.7743159E-03  -.1298392E-02
  -.2063546E-01   .8384480E-04  -.8996153E-03
   .2193501E-02   .1420339E-02  -.9306819E-03
  -.1290191E-01   .2668602E-03  -.2144045E-02
   .1881793E-01  -.3130604E-03   .1671569E-02
  -.4421269E-02   .7166888E-03   .3326227E-03
   .1456857E-02  -.3649036E-03  -.2610492E-03
   .4732779E-02  -.1632895E-02  -.1290674E-04
   .5948900E-02   .2395925E-03   .2534421E-03
  -.1011150E-01  -.1086909E-03   .1227391E-02
   .5374936E-02   .1281499E-02  -.8043884E-04
  -.5891630E-02   .1486214E-03  -.4066479E-03
  -.2140453E-01   .9157431E-03  -.1227721E-02
   .4666749E-02  -.8552871E-03  -.9237619E-04
  -.8541672E-03  -.5584172E-03  -.5818208E-03
  -.2577841E-02  -.1966333E-03   .1419968E-02
  -.1379169E-01   .1313774E-02   .1810626E-02
  -.3295340E-02   .6975940E-04  -.3931882E-03
  -.3200434E-02  -.3524914E-05   .1270374E-02
  -.2220967E-02   .2091057E-03   .4758394E-03
   .2615858E-02   .7741450E-03   .1558660E-03
   .8223084E-02   .4457654E-03   .1891017E-02
  -.6006066E-02  -.2062774E-02   .7229091E-03
   .1249123E-02   .7497160E-04   .2125030E-02
   .7734674E-02  -.4206114E-03  -.4566389E-02
  -.6786015E-02   .1098192E-02   .2354464E-02
  -.1329086E-01  -.1479389E-03   .2647522E-02
   .5197220E-02   .5457290E-03   .7467105E-03
  -.3173923E-02  -.5320634E-03   .1579564E-02
   .3379363E-02  -.2524758E-03  -.8509210E-04
   .3688933E-02  -.6577090E-03  -.2964724E-02
  -.2730856E-02  -.1074245E-02  -.3691923E-03
   .1537104E-02  -.6441417E-03  -.1756031E-02
  -.4356501E-02  -.4308874E-03  -.7969747E-03
  -.6791076E-02  -.1333441E-02  -.1720356E-02
   .3791538E-02   .7497338E-03   .4509259E-03
  -.9130983E-02  -.1429122E-02  -.2453400E-03
  -.4039322E-02  -.6080596E-03  -.7800571E-03
  -.9117924E-02  -.1601400E-03  -.7211671E-03
   .3976038E-03   .6500107E-04   .1129171E-02
   .7067626E-03   .1335592E-03  -.1550904E-02
  -.2068170E-02  -.3010892E-03  -.4764784E-03
   .1878096E-01   .4552278E-03  -.1171877E-03
   .6041069E-02   .2484741E-03  -.2175246E-03
  -.4115749E-02  -.5206396E-03  -.2195577E-02
  -.6968457E-03   .1950909E-03  -.2427225E-03
  -.9978072E-02   .4122655E-04   .8258192E-04
   .6157628E-02  -.1337796E-02   .1405984E-03
   .1233380E-01   .1183439E-02  -.7951789E-03
   .1207288E-02   .5537151E-03  -.2646175E-02
  -.3068771E-02  -.8703845E-03  -.1751158E-02
   .1118429E-01  -.3639641E-03  -.1166119E-02
  -.1017936E-01  -.9905086E-03   .3464688E-03
  -.6656280E-02  -.2209985E-03   .6569841E-03
  -.3034697E-02  -.1917323E-03  -.1046421E-03
   .8116847E-02  -.3492762E-03   .5180687E-03
  -.1440171E-02   .9637786E-03   .2658311E-04
  -.1785137E-03  -.1394245E-02   .5270240E-03
   .3296416E-02  -.1051784E-02   .2459551E-03
